# .PCD v0.7 - Point Cloud Data file format
VERSION 0.7
FIELDS x y z intensity normal_x normal_y normal_z curvature
SIZE 4 4 4 4 4 4 4 4
TYPE F F F F F F F F
COUNT 1 1 1 1 1 1 1 1
WIDTH 953
HEIGHT 1
VIEWPOINT 0 0 0 1 0 0 0
POINTS 953
DATA ascii
4.701093197 -0.1518443972 -0.2465023994 28 0 0 0 0
4.680278301 -0.04489454627 -0.245298624 30.5 0 0 0 0
4.684905529 0.04446411133 -0.2455393821 31.79999924 0 0 0 0
4.742568016 0.09354641289 -0.248595804 24 0 0 0 0
4.739053249 0.134439677 -0.2484650016 27.5 0 0 0 0
4.861661911 0.1885256022 -0.2549808025 16 0 0 0 0
4.859015465 0.2652587593 -0.2550331354 16 0 0 0 0
4.978303909 0.2199691981 -0.26115641 9 0 0 0 0
5.001653194 0.2735058069 -0.2625172138 17 0 0 0 0
4.762503624 0.3638435006 -0.2503229082 17.5 0 0 0 0
4.900559902 0.352994889 -0.2574928999 11 0 0 0 0
5.315465927 0.3456000984 -0.2791599929 18 0 0 0 0
4.762481213 0.4598701298 -0.2507590353 15.66666698 0 0 0 0
4.813738823 0.4567176104 -0.253410697 19 0 0 0 0
4.95134306 0.4436362088 -0.2605283856 5 0 0 0 0
4.790112019 0.5119156837 -0.2524687052 9 0 0 0 0
4.870996475 0.5612453818 -0.2569695711 9.333333015 0 0 0 0
4.907271862 0.5782082081 -0.2589583099 7 0 0 0 0
4.865979671 0.6497989893 -0.2572835982 8.166666985 0 0 0 0
4.771351814 0.7638590932 -0.2532432675 8.800000191 0 0 0 0
4.818003654 0.7118689418 -0.2552425265 10.5 0 0 0 0
4.678753853 0.8659504056 -0.249370411 7 0 0 0 0
4.715742111 0.8136789799 -0.2507939041 9.5 0 0 0 0
4.659706593 0.9541339278 -0.2492762059 7 0 0 0 0
4.575041771 1.070063829 -0.2462407053 10.25 0 0 0 0
4.633529663 1.024632335 -0.2487004995 9.333333015 0 0 0 0
4.498319626 1.184311509 -0.243780911 10.5 0 0 0 0
4.527796745 1.133574128 -0.2446182668 10.39999962 0 0 0 0
4.490562439 1.265831709 -0.2445136011 10.5 0 0 0 0
4.512971401 1.222334504 -0.2450369596 11.5 0 0 0 0
4.453660011 1.348080039 -0.2438706309 10.28571415 0 0 0 0
4.44410038 1.447608948 -0.24495323 9.600000381 0 0 0 0
4.470132828 1.543329835 -0.2478421628 7.400000095 0 0 0 0
4.488729477 1.637182117 -0.2504101098 8.333333015 0 0 0 0
4.502700806 1.659361005 -0.2514917254 8.333333015 0 0 0 0
4.493019104 1.781633019 -0.2533060908 13 0 0 0 0
4.527438164 1.749772549 -0.2543789744 7.5 0 0 0 0
4.464252949 1.878433943 -0.2538293898 12 0 0 0 0
4.531868458 1.851838708 -0.2565717995 10.19999981 0 0 0 0
4.506664276 1.951745033 -0.2573882341 9 0 0 0 0
4.495893002 2.040374041 -0.2587490082 22 0 0 0 0
4.530691624 2.044106245 -0.2604935467 9.333333015 0 0 0 0
4.633440495 2.016093016 -0.2648199499 9 0 0 0 0
4.741035938 2.033971071 -0.2703675926 6 0 0 0 0
4.467333794 2.102168083 -0.2587490082 4 0 0 0 0
4.512290955 2.142591953 -0.2617844939 8 0 0 0 0
4.603374958 2.127059937 -0.2657620013 2 0 0 0 0
4.36495018 2.497807026 -0.2635639012 5 0 0 0 0
4.403170109 2.499316931 -0.2653433084 5 0 0 0 0
4.542686939 2.496598959 -0.2716585398 5 0 0 0 0
4.658359051 2.49700737 -0.2769968212 5 0 0 0 0
4.745401382 2.491359472 -0.2808870971 5 0 0 0 0
4.812892914 2.493700981 -0.2840796113 5 0 0 0 0
3.934772015 2.59154892 -0.2469211072 1 0 0 0 0
4.324956417 2.545982122 -0.2630230486 10.83333302 0 0 0 0
4.460188866 2.50188899 -0.268012464 5 0 0 0 0
2.941084862 2.649977207 -0.2074771971 1.166666627 0 0 0 0
3.04616046 2.640996695 -0.2112907469 1 0 0 0 0
3.159343481 2.644882441 -0.2159381658 1 0 0 0 0
3.245400667 2.623259306 -0.2187015265 1 0 0 0 0
3.363082409 2.632875443 -0.2238409221 1 0 0 0 0
3.462174177 2.633596182 -0.227975443 1 0 0 0 0
3.544420242 2.618782282 -0.2309585959 1 0 0 0 0
3.664160013 2.639365196 -0.2366632074 1 0 0 0 0
3.754092693 2.62577486 -0.2400964797 1 0 0 0 0
3.8659935 2.617737532 -0.2446880788 1 0 0 0 0
3.921528339 2.622287512 -0.2472351044 1 0 0 0 0
4.01835537 2.617021084 -0.2513172925 1 0 0 0 0
4.320823669 2.645749569 -0.2655265033 12 0 0 0 0
2.89269495 2.746026039 -0.2090297937 1 0 0 0 0
2.910564899 2.729310513 -0.2091135532 1 0 0 0 0
4.297090054 2.767163992 -0.2678554058 6 0 0 0 0
4.315545082 2.726084709 -0.2675152421 10 0 0 0 0
2.898452997 2.849298 -0.2130074054 1 0 0 0 0
2.912564754 2.837656021 -0.2131120265 1 0 0 0 0
2.913770437 2.944765091 -0.2171104848 1.399999976 0 0 0 0
2.918044329 3.053698301 -0.2213601619 3.200000048 0 0 0 0
2.917131186 3.149737358 -0.2249923348 3.75 0 0 0 0
2.899285078 3.299026012 -0.2301736027 1 0 0 0 0
2.919690609 3.253056049 -0.2290849984 1.799999952 0 0 0 0
2.910279751 3.370193005 -0.2333660424 1 0 0 0 0
2.478406429 3.479097605 -0.2238670588 2 0 0 0 0
2.52881217 3.449446917 -0.2241549492 2.75 0 0 0 0
2.780330896 3.466701031 -0.2328950018 1 0 0 0 0
2.851367712 3.468089104 -0.235302493 1 0 0 0 0
2.91306901 3.445343018 -0.2364538908 1 0 0 0 0
2.286018372 3.592486382 -0.22316055 4 0 0 0 0
2.346163988 3.562955379 -0.223579213 3.428571463 0 0 0 0
2.422580242 3.518297195 -0.223872304 3 0 0 0 0
2.165969372 3.664210081 -0.2230767906 3.400000095 0 0 0 0
2.237998486 3.626427412 -0.223334983 4 0 0 0 0
1.983626008 3.792717934 -0.2243119031 3 0 0 0 0
2.044917345 3.774887562 -0.2250027955 3 0 0 0 0
2.123430252 3.724262953 -0.2246782482 3 0 0 0 0
2.963545084 3.721684933 -0.2493284941 4 0 0 0 0
3.003798008 3.799377918 -0.2538293898 9 0 0 0 0
1.857224345 3.875385284 -0.2252240628 1.714285731 0 0 0 0
1.944017172 3.831134558 -0.2251567841 2.642857075 0 0 0 0
2.86690402 3.825362206 -0.2505322397 4 0 0 0 0
2.943169117 3.829848528 -0.2531386018 5.199999809 0 0 0 0
3.007217884 3.829739094 -0.2551901937 9 0 0 0 0
1.756480455 3.943010569 -0.2262259275 1.285714269 0 0 0 0
1.806043983 3.906843901 -0.2255679965 2 0 0 0 0
1.714255452 4.054414749 -0.2306969315 1 0 0 0 0
1.713461995 4.173775673 -0.2364539057 1 0 0 0 0
1.689261079 4.262490749 -0.2402918339 1 0 0 0 0
1.712579012 4.234529972 -0.2393846959 1 0 0 0 0
1.685418487 4.363377571 -0.2451416552 1 0 0 0 0
1.677507997 4.434823036 -0.2484911978 1 0 0 0 0
1.671509504 4.537238598 -0.2534107566 1 0 0 0 0
1.679196 4.640724659 -0.2586443126 1 0 0 0 0
1.660681963 4.734290123 -0.2629358768 1 0 0 0 0
1.6564399 4.857612133 -0.26897192 1 0 0 0 0
1.65003252 4.980583191 -0.2749731541 1 0 0 0 0
1.639199972 5.066092491 -0.279055357 1 0 0 0 0
1.629663467 5.159305573 -0.2835562527 1 0 0 0 0
1.618644476 5.248527527 -0.2878478169 1 0 0 0 0
1.617203951 5.342955112 -0.2925580144 1 0 0 0 0
1.610210419 5.422190666 -0.296430856 1 0 0 0 0
0.8302456737 11.47023964 -0.2007375956 21 0 0 0 0
0.778110981 11.56306458 -0.2022908032 23 0 0 0 0
0.7248970866 11.65168953 -0.2037743032 18 0 0 0 0
0.6679388881 11.7271843 -0.2050308585 23 0 0 0 0
0.5722470284 11.87040997 -0.2074393034 25 0 0 0 0
0.611307025 11.82240009 -0.2066365033 21 0 0 0 0
0.4525130689 11.98025227 -0.209265992 10 0 0 0 0
0.5330492258 11.92226982 -0.2083119005 18 0 0 0 0
0.2888213098 12.07670975 -0.2108599991 6 0 0 0 0
0.3504441977 12.02103996 -0.2099175453 6 0 0 0 0
0.2484164983 12.16361046 -0.2123609036 6 0 0 0 0
0.166367799 12.37899971 -0.2160957009 13 0 0 0 0
0.2093438953 12.36435032 -0.2158513963 19 0 0 0 0
0.08068404347 12.49384022 -0.2180853039 9 0 0 0 0
0.1237415001 12.43749046 -0.2171079069 9 0 0 0 0
0.03716351837 12.52604008 -0.2186437994 10 0 0 0 0
-0.1601102948 12.64904022 -0.2208078504 3 0 0 0 0
-0.05070235953 12.6239233 -0.2203540802 6.333333492 0 0 0 0
-0.2271514982 12.75802994 -0.2227275968 3 0 0 0 0
-0.274448812 12.88710976 -0.2249964029 6 0 0 0 0
-0.3222100139 12.99802971 -0.2269511074 14 0 0 0 0
-0.3682490885 13.02081013 -0.2273699939 10 0 0 0 0
-0.5111684799 13.18609047 -0.2303369045 10 0 0 0 0
-0.4401941001 13.12960052 -0.2293072045 12 0 0 0 0
-0.6519295573 13.23455048 -0.2312909365 3 0 0 0 0
-0.5603210926 13.25813961 -0.2316282988 10 0 0 0 0
-0.7486315966 13.30692959 -0.2326405942 3 0 0 0 0
-0.8036695123 13.4479599 -0.2351537049 7 0 0 0 0
-0.8559442759 13.56696033 -0.237282902 10 0 0 0 0
-0.9323264956 13.64006996 -0.2386441976 10 0 0 0 0
-1.108821034 13.78135967 -0.2413319051 7 0 0 0 0
-1.035174012 13.75097466 -0.2407035977 10 0 0 0 0
-1.264860034 13.89844036 -0.2436006963 3 0 0 0 0
-1.164788008 13.87106037 -0.2429724038 3 0 0 0 0
-1.378906965 14.08852959 -0.2470912039 3 0 0 0 0
-1.490138054 14.17772961 -0.2488363981 3 0 0 0 0
6.144855976 -8.920793533 -0.1890794039 5 0 0 0 0
5.390593052 -8.772573471 -0.1797249019 2 0 0 0 0
5.435823917 -8.70927906 -0.1792013049 5 0 0 0 0
5.355905056 -8.64829731 -0.1775608063 2 0 0 0 0
7.053662777 -8.664070129 -0.1950131953 9 0 0 0 0
7.120880127 -8.68144989 -0.1959905028 6 0 0 0 0
5.712242126 -8.475126266 -0.1783985049 5 0 0 0 0
6.281723022 -8.40918541 -0.1832153946 8 0 0 0 0
6.326667786 -8.407979012 -0.1836691052 5 0 0 0 0
6.759870529 -8.452733994 -0.1889223009 8 0 0 0 0
6.852410793 -8.477137566 -0.1902661026 2 0 0 0 0
5.533133984 -8.337505341 -0.1746636927 8 0 0 0 0
5.639167786 -8.338511467 -0.1757107973 7.5 0 0 0 0
5.922058582 -8.376422882 -0.1790616959 8 0 0 0 0
5.633942127 -8.296322823 -0.1750476062 5 0 0 0 0
5.750301838 -8.255104065 -0.1756061018 2 0 0 0 0
6.46162796 -8.226024628 -0.1825871021 8 0 0 0 0
6.564746857 -8.297513008 -0.1846814007 8 0 0 0 0
5.167817116 -8.152606964 -0.1684855074 5 0 0 0 0
5.865375042 -8.114599228 -0.1747683883 8 0 0 0 0
6.299571991 -8.194943428 -0.1804230064 5 0 0 0 0
6.381225109 -8.182302475 -0.181121096 5 0 0 0 0
5.174243927 -8.069046021 -0.1673161983 15.5 0 0 0 0
5.23538208 -8.040252686 -0.1674733013 14 0 0 0 0
5.330211163 -8.092905045 -0.1691486984 5 0 0 0 0
5.898343086 -8.070879936 -0.1744892001 2 0 0 0 0
5.945898056 -8.047082901 -0.1746461987 3.5 0 0 0 0
6.254683018 -8.078036308 -0.1783286929 2 0 0 0 0
9.121519089 -6.226945877 -0.1927793026 3 0 0 0 0
8.944852829 -6.152225018 -0.189498201 2 0 0 0 0
9.017383575 -6.109818935 -0.1901264936 2 0 0 0 0
9.047590256 -6.061378002 -0.19009161 8 0 0 0 0
9.033901215 -5.940937042 -0.1887302995 11 0 0 0 0
9.043239594 -5.836899281 -0.1878751516 20 0 0 0 0
9.042499542 -5.76958704 -0.1872293949 8 0 0 0 0
8.989934921 -5.691988945 -0.1857285053 11 0 0 0 0
9.024989128 -5.670147896 -0.1860426962 8 0 0 0 0
8.859759331 -5.523300171 -0.1822379977 5 0 0 0 0
6.1270051 -3.558785677 -0.1236793622 18.66666603 0 0 0 0
6.221964836 -3.500175953 -0.1246102005 12 0 0 0 0
5.690981388 -3.480606556 -0.1164425015 49 0 0 0 0
5.751074791 -3.407929897 -0.1166867986 36 0 0 0 0
5.965353012 -3.409480095 -0.1199328974 22 0 0 0 0
6.063598156 -3.43900609 -0.1216782033 16 0 0 0 0
5.952997208 -3.321566105 -0.1189905033 18 0 0 0 0
6.022294044 -3.332716942 -0.1201424003 14 0 0 0 0
5.894365788 -3.208375931 -0.1171405986 18 0 0 0 0
5.902412891 -3.239515066 -0.1175244972 10 0 0 0 0
6.02989912 -3.256274939 -0.1196188033 14 0 0 0 0
5.868472099 -3.142692089 -0.1161981001 16 0 0 0 0
5.942176819 -3.128905535 -0.1172220036 14 0 0 0 0
6.040044308 -3.112757921 -0.1186065525 13 0 0 0 0
5.989923 -3.021791935 -0.1171057001 18 0 0 0 0
6.0222826 -3.037473202 -0.1177339032 13 0 0 0 0
6.198991776 -3.073162079 -0.1207707003 8 0 0 0 0
6.082954407 -2.976085663 -0.1182051525 15 0 0 0 0
6.112602234 -2.937861919 -0.1183796525 10 0 0 0 0
6.340414047 -1.122550964 -0.1123934984 9 0 0 0 0
6.442808151 -1.117498994 -0.1141387001 13 0 0 0 0
6.624101162 -1.125139952 -0.1172802001 12 0 0 0 0
6.474195004 -1.041617751 -0.1144616306 14.5 0 0 0 0
6.457481861 -0.9362903237 -0.113894403 18 0 0 0 0
6.520567417 -0.9605386257 -0.1150463 14.66666698 0 0 0 0
6.85807085 -0.9455366731 -0.1208404973 22 0 0 0 0
6.45802784 -0.8444827795 -0.113684997 15 0 0 0 0
6.54422617 -0.8789994121 -0.1152556986 5 0 0 0 0
6.645780563 -0.8100847006 -0.1168613508 4 0 0 0 0
6.718818188 -0.8547415733 -0.1182226017 8 0 0 0 0
3.48662138 -0.7096650004 -0.1864730418 9 0 0 0 0
3.691046 -0.7315161824 -0.1972018927 18 0 0 0 0
6.586378098 -0.7678952217 -0.115744397 16 0 0 0 0
6.648629189 -0.7516388297 -0.1167915016 8 0 0 0 0
6.734911442 -0.7262889147 -0.118240051 13 0 0 0 0
6.541337013 -0.6022157073 -0.1146622971 9 0 0 0 0
6.630764008 -0.6337981224 -0.1162678972 1 0 0 0 0
6.700959206 -0.6759359837 -0.1175594032 4 0 0 0 0
5.734686852 -0.5077720284 -0.1004910022 5 0 0 0 0
5.727982998 -0.2861581147 -0.1001069993 15 0 0 0 0
6.454054832 -0.2998498082 -0.112777397 7 0 0 0 0
6.527273655 -0.2462152541 -0.1140165478 8 0 0 0 0
6.638256073 -0.2504273951 -0.1159538031 4.5 0 0 0 0
6.285945892 -0.1174037978 -0.1097406968 13 0 0 0 0
6.303228378 -0.1507487595 -0.1100549027 19 0 0 0 0
6.444280148 -0.187884599 -0.1125330999 3 0 0 0 0
6.268617153 -0.07330670208 -0.1094266027 13 0 0 0 0
6.328940868 -0.02978044003 -0.1104737297 13 0 0 0 0
6.420281887 -0.09749539196 -0.1120793968 16 0 0 0 0
6.222548008 0.07928522676 -0.1086238027 7 0 0 0 0
6.47099781 0.01468332019 -0.1129520014 3 0 0 0 0
6.539810658 0.04905954003 -0.1141562015 6 0 0 0 0
5.162075996 2.49433589 -0.1000721008 5 0 0 0 0
5.233268738 2.49386549 -0.1011890471 3 0 0 0 0
5.327526569 2.493293047 -0.1026725024 4 0 0 0 0
5.447011471 2.492977381 -0.1045631692 3 0 0 0 0
3.020050049 4.870842934 -0.1000372022 17 0 0 0 0
3.010839939 4.952122211 -0.1011628732 14.75 0 0 0 0
2.894388676 5.072405815 -0.1019394994 7 0 0 0 0
2.954821825 5.074867725 -0.1025037691 7.333333492 0 0 0 0
3.011579514 5.070117474 -0.1029343009 16 0 0 0 0
2.882607222 5.168001175 -0.1032920778 7.5 0 0 0 0
2.879896402 5.259767056 -0.1046708301 7 0 0 0 0
2.872785091 5.31088686 -0.1053950936 7 0 0 0 0
2.952793121 5.540949821 -0.1095941067 16.79999924 0 0 0 0
2.943330288 5.636376381 -0.1109903008 16.79999924 0 0 0 0
2.932700634 5.726758957 -0.1123062074 22.5 0 0 0 0
2.863614559 5.876344681 -0.1141038388 7 0 0 0 0
2.926059008 5.837333679 -0.1139758304 18 0 0 0 0
2.817662477 5.952814102 -0.1149590015 6 0 0 0 0
2.793514013 6.093128204 -0.1170009002 8 0 0 0 0
2.805107594 6.034905434 -0.1161632463 5.5 0 0 0 0
2.851317167 6.337715149 -0.1213058606 20.66666603 0 0 0 0
2.835042477 6.449293137 -0.1229696497 15 0 0 0 0
2.797113895 6.576816082 -0.1247498021 18 0 0 0 0
2.812081814 6.517092705 -0.1238946468 20 0 0 0 0
2.792364597 6.662377357 -0.1260935962 23 0 0 0 0
2.765543938 6.729800224 -0.1270011961 16 0 0 0 0
2.754725456 6.838906288 -0.1286940575 20 0 0 0 0
2.733715057 6.925861359 -0.1299681067 23 0 0 0 0
2.694113016 7.077413082 -0.1321845055 19 0 0 0 0
2.714881897 7.021241665 -0.1313991994 25 0 0 0 0
2.673809528 7.136368752 -0.1330222487 14 0 0 0 0
2.6518116 7.230895996 -0.1344358921 17 0 0 0 0
2.635318995 7.340053558 -0.1361287534 23 0 0 0 0
2.610163212 7.432806015 -0.1375074983 20 0 0 0 0
2.578211784 7.552125931 -0.139293462 17.66666603 0 0 0 0
2.545983076 7.631276131 -0.1404221058 15 0 0 0 0
2.523133278 7.742651463 -0.1421440244 17 0 0 0 0
2.482151031 7.848590851 -0.1436856985 15 0 0 0 0
2.454509974 7.951504707 -0.1452564001 17.5 0 0 0 0
2.425312996 8.053436279 -0.1468096524 20 0 0 0 0
2.384644985 8.176044464 -0.1486596018 23 0 0 0 0
2.404105902 8.136985779 -0.1481011063 22 0 0 0 0
2.357697964 8.244174957 -0.1496718526 17.5 0 0 0 0
2.326314449 8.351730347 -0.1513298005 21 0 0 0 0
2.282445908 8.476754189 -0.1532320976 21 0 0 0 0
2.300956011 8.428226471 -0.1524990946 21 0 0 0 0
2.255120993 8.559549332 -0.1545061469 21 0 0 0 0
2.217617989 8.659170151 -0.1560245454 17.5 0 0 0 0
2.179948807 8.7532444 -0.157455653 22.5 0 0 0 0
2.143300533 8.86621666 -0.1592182964 29.5 0 0 0 0
2.086029053 8.971264839 -0.1607715935 12 0 0 0 0
2.108599901 8.926951408 -0.1601084024 20 0 0 0 0
2.074326038 9.064261436 -0.1623073965 20 0 0 0 0
2.040965557 9.138420105 -0.163441807 21 0 0 0 0
1.981914997 9.252677917 -0.1651695967 20 0 0 0 0
2.004833937 9.202717781 -0.1644016951 22 0 0 0 0
1.952393532 9.353946686 -0.1667926461 20.5 0 0 0 0
1.890115976 9.467702866 -0.1685204059 21 0 0 0 0
1.915184021 9.421855927 -0.1678223014 23 0 0 0 0
1.859109402 9.564493179 -0.170073688 19 0 0 0 0
1.797297001 9.697349548 -0.1721504927 15 0 0 0 0
1.820737958 9.63599968 -0.1711732 15 0 0 0 0
1.773802042 9.760622978 -0.1731628031 13 0 0 0 0
1.73478353 9.84376812 -0.1744717062 14 0 0 0 0
1.683698416 9.960142136 -0.1763216853 17.5 0 0 0 0
1.630419493 10.06118488 -0.1779098511 17.5 0 0 0 0
1.590095997 10.14255047 -0.1792013049 19 0 0 0 0
1.548455477 10.22684479 -0.1805450916 23 0 0 0 0
1.478225946 10.37360954 -0.1829012036 24 0 0 0 0
1.506338 10.3129797 -0.1819238961 16 0 0 0 0
1.433369994 10.45053482 -0.1841228604 23 0 0 0 0
1.374447107 10.554245 -0.185780853 18.5 0 0 0 0
1.298130035 10.6958704 -0.1880670935 17 0 0 0 0
1.330999017 10.65555954 -0.1874388009 17 0 0 0 0
1.268277049 10.76389027 -0.1891840994 14 0 0 0 0
1.221516967 10.83065987 -0.190248698 17 0 0 0 0
1.157845974 10.94322586 -0.1920811981 13 0 0 0 0
1.074530959 11.07831955 -0.1942802072 21 0 0 0 0
1.10818696 11.02476025 -0.1934075952 24 0 0 0 0
1.021569967 11.13953495 -0.1952575445 18 0 0 0 0
0.9718902707 11.24435997 -0.1970027983 21 0 0 0 0
0.9191936255 11.32600975 -0.1983465999 18 0 0 0 0
0.8658884168 11.40944958 -0.1997253001 12 0 0 0 0
4.959224701 -2.331185341 -0.09565082192 9.333333015 0 0 0 0
4.914664268 -2.237756014 -0.09426044673 10.25 0 0 0 0
4.879036903 -2.139820814 -0.09299514443 10 0 0 0 0
4.848278999 -2.045603037 -0.0918520093 10 0 0 0 0
4.816915512 -1.954051256 -0.09073506296 10.5 0 0 0 0
4.781945705 -1.853951216 -0.08952385932 11 0 0 0 0
4.735869408 -1.750967503 -0.08813465387 10 0 0 0 0
4.692840099 -1.615874052 -0.08663374931 12 0 0 0 0
4.706855774 -1.666608453 -0.08715732396 11.5 0 0 0 0
4.666485786 -1.552599669 -0.08584489673 12 0 0 0 0
4.6248312 -1.449969888 -0.08460228145 11.39999962 0 0 0 0
4.584851742 -1.367993712 -0.08351558447 10.66666698 0 0 0 0
4.634586334 -1.321201563 -0.08412060142 4.5 0 0 0 0
4.68649292 -1.291754961 -0.08485359699 5 0 0 0 0
4.766596794 -1.269333243 -0.08610144258 4.75 0 0 0 0
4.863285065 -1.233254671 -0.0875761807 4.333333492 0 0 0 0
4.912559032 -1.20936799 -0.08830918372 4 0 0 0 0
4.946037292 -1.19016695 -0.08879784495 5 0 0 0 0
5.04125309 -1.156349301 -0.09028130025 4.75 0 0 0 0
5.148954868 -1.116003633 -0.09196253866 6 0 0 0 0
5.247239113 -1.069594979 -0.09347508848 6 0 0 0 0
5.351328373 -1.024326324 -0.09510397911 5.333333492 0 0 0 0
5.455104828 -0.9952313304 -0.09679104388 2.5 0 0 0 0
5.663062096 -0.4417568147 -0.09915061295 59 0 0 0 0
5.654344082 -0.3418514132 -0.09887835383 57.20000076 0 0 0 0
5.300508976 0.08511927724 -0.09253265709 1 0 0 0 0
5.061470985 0.133423999 -0.08837898821 4 0 0 0 0
5.168639183 0.1628928483 -0.09026384354 8 0 0 0 0
5.291005611 0.1117702499 -0.0923755914 2 0 0 0 0
5.365577221 0.1967467964 -0.09371942282 15 0 0 0 0
5.13862896 0.2971921861 -0.0898449868 13 0 0 0 0
5.238859177 0.257042706 -0.09155531973 11.5 0 0 0 0
5.426760197 0.2189085931 -0.09480147064 4 0 0 0 0
4.965715885 0.3385286033 -0.08687808365 13 0 0 0 0
5.04894352 0.3796672821 -0.08837899566 12 0 0 0 0
5.139608383 0.3442673385 -0.08991479874 9.333333015 0 0 0 0
4.934688568 0.4542956948 -0.08650110662 15.80000019 0 0 0 0
5.038746834 0.4319725931 -0.0882742703 8 0 0 0 0
4.885627747 0.5517429113 -0.08582220227 12.5 0 0 0 0
4.944069386 0.5459502935 -0.08682572097 9 0 0 0 0
4.893541813 0.6086555719 -0.08607526869 12 0 0 0 0
4.971721172 0.688999474 -0.08761108667 4 0 0 0 0
5.086419106 0.668705225 -0.08954828978 7.5 0 0 0 0
5.162776947 0.6787785888 -0.09089214355 7 0 0 0 0
4.866827011 0.7690354586 -0.0860054642 5 0 0 0 0
4.916644573 0.7163570523 -0.08672682196 5.666666508 0 0 0 0
4.780786514 0.875294745 -0.08483614028 5 0 0 0 0
4.812256813 0.8294666409 -0.08523755521 4.75 0 0 0 0
4.761766911 0.9476326108 -0.08474890143 6.142857075 0 0 0 0
4.655255795 1.070420504 -0.08337887377 7.75 0 0 0 0
4.712780476 1.023219228 -0.08417877555 5.333333492 0 0 0 0
4.544190884 1.161186814 -0.08186923712 9 0 0 0 0
4.625826836 1.114831448 -0.08305600286 6.5 0 0 0 0
4.49243021 1.272925019 -0.08150274307 3 0 0 0 0
4.508814812 1.248230577 -0.08166329563 5.199999809 0 0 0 0
4.494118214 1.362864256 -0.08197395504 4.75 0 0 0 0
4.50567627 1.327816486 -0.08199141175 5 0 0 0 0
4.493296146 1.409837008 -0.08220083266 5 0 0 0 0
4.536352634 1.467249393 -0.08322180063 5 0 0 0 0
4.562101364 1.546910524 -0.0840857029 4.5 0 0 0 0
4.591908932 1.60176897 -0.08488851041 4 0 0 0 0
4.632113457 1.660404801 -0.08589202166 4 0 0 0 0
4.736232758 1.752955437 -0.08815210313 1.5 0 0 0 0
4.875806808 1.83366704 -0.09092702717 6 0 0 0 0
4.904892921 1.864173055 -0.09159023315 3 0 0 0 0
4.850707531 1.990406513 -0.09152042866 11 0 0 0 0
4.952275753 1.968420029 -0.09302132577 12.33333302 0 0 0 0
5.045202255 1.947875023 -0.09440006316 10 0 0 0 0
4.696735859 2.091120958 -0.08974027634 1 0 0 0 0
4.748272419 2.042926311 -0.09022893757 4.800000191 0 0 0 0
4.812886238 2.003410101 -0.09099684656 13 0 0 0 0
5.088829994 2.036416054 -0.09567409754 11 0 0 0 0
4.714941978 2.118979931 -0.09022893757 1 0 0 0 0
4.861524105 2.103769064 -0.0924628526 3 0 0 0 0
4.455166817 2.497024536 -0.08914688975 5 0 0 0 0
4.642047882 2.497363091 -0.09200908244 4 0 0 0 0
4.745041847 2.499661922 -0.09361471236 4 0 0 0 0
4.839761734 2.495294094 -0.09504580498 3.5 0 0 0 0
4.924853325 2.495784998 -0.09637218714 3.5 0 0 0 0
5.045995712 2.492754459 -0.09823959321 3.5 0 0 0 0
5.11379385 2.493060112 -0.09930419177 4 0 0 0 0
4.336965084 2.541037798 -0.08774072677 8.714285851 0 0 0 0
4.419414043 2.507518053 -0.08869312704 5 0 0 0 0
4.53969574 2.503422976 -0.09049072862 6 0 0 0 0
4.602560997 2.50731492 -0.09148552269 4 0 0 0 0
4.755693436 2.505115986 -0.09382414073 4 0 0 0 0
4.9997859 2.502614975 -0.09759385884 4 0 0 0 0
2.940881252 2.657541752 -0.06918833405 1.200000048 0 0 0 0
3.034991503 2.63916111 -0.07020521909 1 0 0 0 0
3.12745285 2.63475132 -0.07138033956 1 0 0 0 0
3.237380028 2.643072128 -0.07295105606 1 0 0 0 0
3.335948944 2.619179249 -0.07403310388 1 0 0 0 0
3.447361946 2.629922628 -0.07568527013 1 0 0 0 0
3.550800323 2.635956526 -0.07719199359 1 0 0 0 0
3.644066572 2.627313852 -0.07841715962 1 0 0 0 0
3.756192207 2.625147343 -0.07999019325 1 0 0 0 0
3.845085859 2.627831459 -0.0812933147 1 0 0 0 0
3.946002722 2.626586676 -0.08274185658 1 0 0 0 0
4.035673141 2.62679863 -0.08405078948 1 0 0 0 0
4.329129696 2.648806572 -0.08858840913 10.5 0 0 0 0
2.922175169 2.74411869 -0.06997251511 1 0 0 0 0
4.333908081 2.74625206 -0.08955876529 11 0 0 0 0
2.889398098 2.899502039 -0.0714501515 1 0 0 0 0
2.917953014 2.846689701 -0.07115695626 1 0 0 0 0
2.929250717 2.964120388 -0.07274162769 1 0 0 0 0
2.930240154 3.053888321 -0.07387603819 1 0 0 0 0
2.890969038 3.130721092 -0.07438216358 1 0 0 0 0
2.922622919 3.1381073 -0.0748533681 1 0 0 0 0
2.924208641 3.245160818 -0.0762495622 1.5 0 0 0 0
2.927838326 3.352841854 -0.07769811898 2.599999905 0 0 0 0
2.933005095 3.454869986 -0.07910594344 1 0 0 0 0
2.94412303 3.541291237 -0.08038578182 1 0 0 0 0
2.942275763 3.615309715 -0.08136311918 1 0 0 0 0
3.047110319 3.865021467 -0.08590947092 20.25 0 0 0 0
3.047855616 3.963512182 -0.08727365732 19.66666603 0 0 0 0
3.049043417 4.052218437 -0.08851861209 19.66666603 0 0 0 0
3.050572872 4.159423351 -0.09003696591 17.75 0 0 0 0
2.959101915 4.263227463 -0.09058497101 8.600000381 0 0 0 0
3.036349297 4.244233608 -0.09108993411 14.33333302 0 0 0 0
2.922929764 4.338403702 -0.09131100029 6 0 0 0 0
2.928695679 4.445096493 -0.09291660786 6 0 0 0 0
2.927834034 4.510196209 -0.09385903925 6 0 0 0 0
3.020370007 4.688495159 -0.09734951705 17 0 0 0 0
3.023681641 4.748104572 -0.09825704992 17.5 0 0 0 0
3.022753716 4.819659233 -0.09930419922 20 0 0 0 0
4.888764858 -2.142995834 0.09317258 9 0 0 0 0
4.915101051 -2.195543051 0.09396375716 9 0 0 0 0
4.860913277 -2.050058126 0.09208588302 9.800000191 0 0 0 0
4.790543079 -1.904451966 0.08998460323 10 0 0 0 0
4.823148251 -1.955579162 0.09084558487 9.333333015 0 0 0 0
4.779708862 -1.842476964 0.0894144997 11 0 0 0 0
4.80088377 -1.889183044 0.09005442262 10 0 0 0 0
4.74063015 -1.751864195 0.08821842819 10.80000019 0 0 0 0
4.685554981 -1.630780935 0.08659884334 9 0 0 0 0
4.705142498 -1.674510002 0.08717477322 9 0 0 0 0
4.663284779 -1.559667468 0.0858309418 10.60000038 0 0 0 0
4.625558376 -1.458328009 0.084658131 11.39999962 0 0 0 0
4.585591793 -1.345044851 0.08341552317 11.80000019 0 0 0 0
4.600678921 -1.380270004 0.08384136111 11 0 0 0 0
4.562066078 -1.239796162 0.08252079785 9.5 0 0 0 0
4.652201653 -1.178835273 0.08377155662 4.5 0 0 0 0
4.751418114 -1.133356571 0.08526373655 5 0 0 0 0
4.816343784 -1.103975058 0.08624979854 4 0 0 0 0
4.862845898 -1.079495668 0.08694788814 4.333333492 0 0 0 0
4.954696178 -1.045855641 0.08839062601 4.666666508 0 0 0 0
5.034704208 -1.016072989 0.08965301514 4 0 0 0 0
5.077731133 -0.9892933369 0.09029874951 4 0 0 0 0
5.159484386 -0.9589633346 0.09160187095 4 0 0 0 0
5.237520695 -0.9168772697 0.09281190485 4 0 0 0 0
5.297053814 -0.8892744184 0.09375432879 4 0 0 0 0
5.347873688 -0.8594039083 0.09454550594 3 0 0 0 0
5.632841587 -0.4284978807 0.09860610217 50.33333206 0 0 0 0
5.627853394 -0.349127382 0.09842459112 63.20000076 0 0 0 0
5.659626961 -0.2916561961 0.098920241 28 0 0 0 0
5.704554081 -0.2740094066 0.09968814999 13 0 0 0 0
5.417141914 0.2090543956 0.09462694824 10 0 0 0 0
5.55864954 0.2542848289 0.09712845832 12 0 0 0 0
5.649281979 0.2980464101 0.0987457186 12 0 0 0 0
5.273821831 0.3604118824 0.09227087349 14 0 0 0 0
5.391589165 0.3685101569 0.09433025867 14.5 0 0 0 0
5.470514774 0.3077662885 0.09563919157 9 0 0 0 0
5.54531908 0.3304241896 0.09696556628 6 0 0 0 0
5.177352905 0.4538716972 0.0907176137 20 0 0 0 0
5.272379875 0.4389947355 0.09234940261 8.75 0 0 0 0
5.25406599 0.5346146226 0.09218359739 10 0 0 0 0
5.308997154 0.5669100285 0.09319585562 26 0 0 0 0
5.433021069 0.5336704254 0.09529013932 7 0 0 0 0
5.625967026 0.5328003168 0.09864100814 16 0 0 0 0
5.130241871 0.6653923988 0.09029874951 6 0 0 0 0
5.218227863 0.6654167771 0.09182292968 5.666666508 0 0 0 0
5.30350399 0.6333423853 0.09323076159 23 0 0 0 0
5.482583046 0.6343566775 0.09633728862 13 0 0 0 0
5.615921021 0.6299251914 0.09864100814 6 0 0 0 0
5.233483315 0.7540882826 0.09229530394 11.19999981 0 0 0 0
5.177875042 0.8377063274 0.09155532718 16 0 0 0 0
5.241983414 0.8415076137 0.09267228842 8.333333015 0 0 0 0
5.346560955 0.8841611147 0.09459204227 7 0 0 0 0
5.281578541 0.9203925133 0.09357980639 8 0 0 0 0
5.345560074 0.9790912271 0.09485963732 11 0 0 0 0
5.271104336 1.059314013 0.09384741634 11.33333302 0 0 0 0
5.312117577 1.020052433 0.09441751242 11.5 0 0 0 0
5.326060295 1.147650242 0.09510165453 12.19999981 0 0 0 0
5.296934128 1.218026042 0.09487128258 22 0 0 0 0
5.351605415 1.256308436 0.0959533304 11.5 0 0 0 0
5.350220203 1.362919092 0.09637218714 8.25 0 0 0 0
5.407378197 1.32417798 0.0971750021 8 0 0 0 0
5.344770908 1.446815372 0.0966514349 7 0 0 0 0
5.454661846 1.414736986 0.09836176038 8 0 0 0 0
5.32704401 1.550655484 0.09684340656 7 0 0 0 0
5.419887066 1.516817451 0.09823960066 6.5 0 0 0 0
5.268567085 1.664206028 0.09644200653 18 0 0 0 0
5.41942215 1.691076994 0.09909477085 18 0 0 0 0
5.327485085 1.703292966 0.09762875736 11 0 0 0 0
5.43756485 1.759430051 0.09975794703 8 0 0 0 0
5.39386797 1.864652991 0.09961833805 11.66666698 0 0 0 0
5.413272858 1.857599974 0.09989757836 17 0 0 0 0
5.236390114 1.959890008 0.09759385884 5 0 0 0 0
5.311311722 1.956281424 0.09879807383 3 0 0 0 0
5.260674 2.053169012 0.09857118875 3 0 0 0 0
5.306200981 2.007163048 0.09902495146 7 0 0 0 0
4.337749958 2.491873264 0.08732020855 4.333333492 0 0 0 0
4.448338032 2.49418354 0.08901890367 4 0 0 0 0
4.548784733 2.488926888 0.09050818533 4 0 0 0 0
4.651463032 2.492509365 0.0921137929 4 0 0 0 0
4.746032238 2.490570307 0.09355653077 3.666666746 0 0 0 0
4.851900101 2.491373539 0.09520287812 3.5 0 0 0 0
4.928767204 2.488046646 0.09637218714 3 0 0 0 0
4.294500828 2.560438156 0.08727366477 9.666666985 0 0 0 0
4.305113792 2.533401012 0.08719222248 9.5 0 0 0 0
5.019816875 2.502789021 0.09790799767 3 0 0 0 0
2.937717676 2.655442953 0.06912317127 1.333333373 0 0 0 0
3.051380873 2.641595364 0.07044955343 2.5 0 0 0 0
3.155160427 2.64523983 0.07186900824 3.75 0 0 0 0
3.254870653 2.639355421 0.0731465295 3.400000095 0 0 0 0
3.354410172 2.634554625 0.07445196807 2 0 0 0 0
3.461712122 2.638547421 0.0759761408 3.333333254 0 0 0 0
3.536026955 2.630746365 0.07693020999 2.5 0 0 0 0
3.643385649 2.63306284 0.07846602052 4 0 0 0 0
3.760554552 2.625843048 0.08006000519 4.666666508 0 0 0 0
3.863324642 2.621446371 0.08149401098 3.5 0 0 0 0
3.962316513 2.612206221 0.08284076303 2 0 0 0 0
4.001398087 2.624430895 0.08352720737 5 0 0 0 0
4.303596497 2.64454174 0.08816955239 10.75 0 0 0 0
2.921971321 2.744758129 0.06997716427 2.599999905 0 0 0 0
4.287679672 2.760036945 0.08900727332 4.5 0 0 0 0
4.311010361 2.722180128 0.08899564296 10.33333302 0 0 0 0
2.922015429 2.851275444 0.0712639913 2.833333254 0 0 0 0
2.928341627 2.958721161 0.07266309112 2.75 0 0 0 0
2.928054333 3.041428328 0.07369278371 3.75 0 0 0 0
2.931576967 3.153709412 0.07515878975 3 0 0 0 0
2.931311131 3.242791653 0.07630191743 3.25 0 0 0 0
2.934789658 3.349948406 0.0777399987 3 0 0 0 0
2.937420368 3.460719585 0.07923392951 5 0 0 0 0
2.941791058 3.564623356 0.08067375422 6.75 0 0 0 0
2.94629097 3.646824837 0.08183433115 6.5 0 0 0 0
3.001777887 3.754884005 0.08391117305 2 0 0 0 0
-4.253993034 3.819571018 0.09979286045 6 0 0 0 0
3.03672576 3.853071451 0.08563315123 17.66666603 0 0 0 0
3.035738945 3.949263334 0.08694788814 15.5 0 0 0 0
3.040293694 4.056288719 0.08848369867 20.33333397 0 0 0 0
3.035254478 4.139682293 0.08960065246 16.66666603 0 0 0 0
3.041229248 4.253219604 0.09126735479 17.25 0 0 0 0
3.034404755 4.357377529 0.09268391132 17.33333397 0 0 0 0
3.028401136 4.445688248 0.09389394522 16 0 0 0 0
3.021961451 4.537624836 0.09516215324 17.33333397 0 0 0 0
3.020341158 4.636863232 0.09659325331 17.33333397 0 0 0 0
3.013504267 4.734022617 0.09795454144 16 0 0 0 0
3.018667459 4.832831383 0.09946125746 16.5 0 0 0 0
5.336438179 -8.749435425 0.1788871586 5 0 0 0 0
5.425303936 -8.722900391 0.1793060005 22 0 0 0 0
5.352815151 -8.673716545 0.1779098064 13 0 0 0 0
7.163684845 -8.640967369 0.1959207058 11 0 0 0 0
5.347392082 -8.531085968 0.1757456958 8 0 0 0 0
5.67295599 -8.515893936 0.178607896 13 0 0 0 0
5.98847723 -8.530231476 0.1819238961 11 0 0 0 0
6.893036842 -8.554847717 0.1917670965 17 0 0 0 0
6.946604729 -8.529445648 0.1920114011 9.5 0 0 0 0
6.719964981 -8.460268974 0.1885907054 8 0 0 0 0
5.589312077 -8.324048042 0.1750126928 8 0 0 0 0
6.596282959 -8.364340782 0.1859378964 2 0 0 0 0
6.694489002 -8.368055344 0.1870549023 17 0 0 0 0
5.864644051 -8.292136192 0.1772816032 8 0 0 0 0
5.9382658 -8.212441444 0.1768976003 22 0 0 0 0
5.411924839 -8.182731628 0.1712429971 10 0 0 0 0
5.653516769 -8.143386841 0.1730405986 15 0 0 0 0
5.835877419 -8.16043663 0.175117448 15 0 0 0 0
5.167499065 -8.08642292 0.1675081998 14 0 0 0 0
5.233139515 -8.033730507 0.1673569679 15.33333302 0 0 0 0
5.852692127 -8.034877777 0.1735118032 7 0 0 0 0
5.917775154 -8.035525322 0.1741925031 5 0 0 0 0
6.092148781 -8.008681297 0.1756410003 11 0 0 0 0
6.171195507 -8.024988174 0.1767055988 12 0 0 0 0
6.287363052 -8.088115692 0.1788174063 11 0 0 0 0
6.318024158 -8.06926918 0.1788872033 8 0 0 0 0
5.961785316 -7.977977753 0.1738434434 11.5 0 0 0 0
6.020957947 -7.96980381 0.1743495017 19 0 0 0 0
8.226908684 -3.848537445 0.158537671 15.66666698 0 0 0 0
8.235811234 -3.748106956 0.157944262 13 0 0 0 0
5.683064938 -3.474406004 0.1162678972 16 0 0 0 0
5.701998234 -3.458695889 0.116407603 8 0 0 0 0
5.633509159 -3.390309095 0.1147670001 17 0 0 0 0
5.759486198 -3.385829926 0.1166170016 8 0 0 0 0
8.024790764 -1.205041051 0.141643703 26 0 0 0 0
8.329245567 -1.013849974 0.1464605927 9 0 0 0 0
6.601089001 -0.9206745028 0.1163377017 1 0 0 0 0
6.746850014 -0.9890698195 0.1190254018 5 0 0 0 0
6.863094807 -0.9816519022 0.1210149974 1 0 0 0 0
8.314565659 -0.9679003954 0.1461115479 10 0 0 0 0
6.584447861 -0.8949335217 0.1159887016 4 0 0 0 0
6.71048069 -0.8644331694 0.1181004494 5 0 0 0 0
6.844398975 -0.8816449046 0.1204565018 3 0 0 0 0
8.285778999 -0.8343446255 0.1453610957 9 0 0 0 0
6.66042614 -0.7176734805 0.1169311032 4 0 0 0 0
6.731545925 -0.747926712 0.1182226017 1 0 0 0 0
8.261809349 -0.7155501842 0.1447502971 11 0 0 0 0
6.675487995 -0.6487475038 0.1170707494 2 0 0 0 0
6.640069962 -0.598451674 0.1163726002 11 0 0 0 0
5.709451199 -0.4744187891 0.1000023037 11 0 0 0 0
6.427297115 -0.2188306004 0.1122538969 9 0 0 0 0
6.553297043 -0.2541356385 0.1144761667 12 0 0 0 0
6.622324944 -0.2486166954 0.1156745031 19 0 0 0 0
6.384661198 -0.1738789976 0.1114860028 12 0 0 0 0
6.453446388 -0.1419380605 0.1126727015 9 0 0 0 0
6.55008316 -0.1097579971 0.1143482029 6 0 0 0 0
6.469441891 -0.04810884222 0.1129286736 8 0 0 0 0
6.560688019 -0.06412518024 0.114522703 6 0 0 0 0
6.256143093 0.04033558443 0.1092055067 10.33333302 0 0 0 0
6.446827888 0.04950802028 0.1125330999 13 0 0 0 0
6.576588154 0.07346493751 0.1148018986 6 0 0 0 0
6.018361092 0.1807174534 0.1050983965 9.5 0 0 0 0
6.120434761 0.1410110444 0.1068610996 9 0 0 0 0
6.266051769 0.1115633994 0.1093916968 6 0 0 0 0
6.009385109 0.2109030038 0.1049588025 9 0 0 0 0
5.528346062 1.577919006 0.1003512964 8 0 0 0 0
5.493560791 1.672230721 0.1002350077 13.66666698 0 0 0 0
5.549860001 1.647104979 0.1010494009 10 0 0 0 0
5.448493004 1.784001946 0.1000721008 7 0 0 0 0
5.445067883 1.826123953 0.1002466008 12 0 0 0 0
5.514047146 1.827869058 0.1013984978 12 0 0 0 0
5.394674778 1.934761047 0.1000372022 13 0 0 0 0
5.403281212 1.916584969 0.1000721008 26 0 0 0 0
5.155804157 2.548158884 0.1003862023 3 0 0 0 0
5.315514088 2.604043007 0.1033181995 3 0 0 0 0
5.517047882 2.678932905 0.1070531011 4 0 0 0 0
5.647564888 2.71677494 0.1093916968 6 0 0 0 0
5.75087595 2.741796017 0.1112067029 6 0 0 0 0
5.837543011 2.74565053 0.1126029491 6 0 0 0 0
5.946191788 2.746855974 0.1143307015 6 0 0 0 0
6.037583828 2.751483917 0.1158142015 6 0 0 0 0
6.145014286 2.749982834 0.1175128594 6.333333492 0 0 0 0
6.265840054 2.750513077 0.1194443032 7 0 0 0 0
6.357684612 2.752475977 0.1209277511 7 0 0 0 0
6.44096899 2.748636961 0.1222366989 7 0 0 0 0
6.541915894 2.751264095 0.1238771528 7 0 0 0 0
6.631966114 2.748405933 0.125308305 7 0 0 0 0
6.738359451 2.752565384 0.1270534992 8 0 0 0 0
6.861374855 2.747068882 0.1290082037 8 0 0 0 0
6.972386837 2.749313116 0.130823195 8 0 0 0 0
7.149184227 2.747130394 0.1336854398 6 0 0 0 0
7.630650043 2.766774893 0.1416786015 2 0 0 0 0
-4.276231766 3.866584063 0.1006305963 5 0 0 0 0
3.009644032 4.874930859 0.1000023037 16 0 0 0 0
3.006272316 4.946537495 0.1010378003 12 0 0 0 0
2.996049881 5.086285114 0.1030389965 13 0 0 0 0
3.00425601 5.040736198 0.1024281979 15.5 0 0 0 0
2.991480827 5.139928818 0.103806898 13 0 0 0 0
2.988733053 5.239963055 0.1052961573 14.33333302 0 0 0 0
2.976767778 5.360468864 0.1070268825 13 0 0 0 0
2.961521864 5.454582691 0.1083387136 11.83333302 0 0 0 0
2.951095343 5.549114704 0.1097058505 16 0 0 0 0
2.937940598 5.641887188 0.1110322177 17.66666603 0 0 0 0
2.942178726 5.771318913 0.1130741164 20 0 0 0 0
2.931871176 5.851027966 0.1142347232 20.5 0 0 0 0
2.914802074 5.936378479 0.1154371724 19.39999962 0 0 0 0
2.899018049 6.072463989 0.1174547002 21 0 0 0 0
2.904390097 6.032186985 0.1168612987 16 0 0 0 0
2.884200811 6.151707172 0.1185949072 19.33333397 0 0 0 0
2.864478588 6.250867367 0.1200202033 16 0 0 0 0
2.852211475 6.342083931 0.1213814989 19 0 0 0 0
2.839506149 6.432030678 0.1227253526 16 0 0 0 0
2.820780039 6.540544033 0.1243309379 24 0 0 0 0
2.793164015 6.667475224 0.1261809021 16 0 0 0 0
2.802397966 6.624533176 0.1255525947 15 0 0 0 0
2.78298378 6.742080688 0.1273152977 20 0 0 0 0
2.754267931 6.841226578 0.1287289262 16 0 0 0 0
2.717504501 6.923645496 0.1298284531 10 0 0 0 0
2.704600334 7.034849167 0.1315562427 13 0 0 0 0
2.66019702 7.160029411 0.133327648 12.5 0 0 0 0
2.591516018 7.221938133 0.133929804 2 0 0 0 0
2.644057989 7.213517189 0.1341042966 8 0 0 0 0
2.594383001 7.310090065 0.1353957951 2 0 0 0 0
2.595082998 7.477266788 0.1381532997 22 0 0 0 0
2.575232506 7.547528267 0.1392003596 22 0 0 0 0
2.47796011 7.653635025 0.1404221058 2 0 0 0 0
2.529845715 7.631690979 0.1403405964 14 0 0 0 0
2.491441011 7.787941933 0.1427257955 4 0 0 0 0
2.460811615 7.833301544 0.1433191597 9 0 0 0 0
2.374732018 7.991353989 0.1455181986 2 0 0 0 0
2.422227621 7.947788239 0.1450294703 5.333333492 0 0 0 0
2.37609601 8.099372864 0.1473332047 2 0 0 0 0
2.373394012 8.195973396 0.1489388049 4 0 0 0 0
2.361257076 8.261890411 0.1499859989 14 0 0 0 0
2.286648035 8.324332237 0.1506841034 2 0 0 0 0
2.33513546 8.33265686 0.1510505527 10 0 0 0 0
2.267735004 8.546909332 0.1543490589 18.5 0 0 0 0
2.227969646 8.643089294 0.1557976454 34.5 0 0 0 0
2.199434996 8.711262703 0.1568273008 45 0 0 0 0
2.142479897 8.869515419 0.1592707038 22 0 0 0 0
2.109047413 8.936077118 0.1602654457 23.5 0 0 0 0
1.998150945 9.095689774 0.1625517011 2 0 0 0 0
2.070709467 9.055843353 0.1621502936 23.5 0 0 0 0
2.032655954 9.108530998 0.1629008055 21 0 0 0 0
1.971614957 9.291677475 0.1657979041 10 0 0 0 0
1.937072992 9.370404243 0.167019546 19.5 0 0 0 0
1.900645018 9.443160057 0.1681365073 21 0 0 0 0
1.869899035 9.53997612 0.1696898043 15.5 0 0 0 0
1.819388986 9.638274193 0.1712081432 15 0 0 0 0
1.773067951 9.76175499 0.1731802523 16.5 0 0 0 0
1.73553896 9.852788925 0.1746287942 22 0 0 0 0
1.667761087 9.977012634 0.1765660048 12 0 0 0 0
1.709267974 9.916232109 0.1756410003 19 0 0 0 0
1.619987965 10.00212002 0.1768627018 5 0 0 0 0
1.557134032 10.17597008 0.1796900034 12 0 0 0 0
1.605399966 10.13609028 0.179131493 22 0 0 0 0
1.50880599 10.21763039 0.1802833974 2 0 0 0 0
1.489670038 10.33763027 0.1823077947 5 0 0 0 0
1.381011009 10.47574043 0.1844370067 5 0 0 0 0
1.449236512 10.44431019 0.1840530485 16 0 0 0 0
1.313707948 10.68389988 0.1878926009 23 0 0 0 0
1.245752931 10.73426914 0.1886256337 12 0 0 0 0
1.189627051 10.89758968 0.1913481951 8 0 0 0 0
1.083886981 10.99501991 0.1928490996 2 0 0 0 0
1.140159488 10.9772501 0.1926396489 14 0 0 0 0
1.024595022 11.19349003 0.1961999983 20 0 0 0 0
0.9719547629 11.26841927 0.1974216402 13 0 0 0 0
0.9163635969 11.31523037 0.1981545985 6 0 0 0 0
0.8847349286 11.42004013 0.1999347955 9 0 0 0 0
1.370712042 -17.03634071 0.2983314097 16 0 0 0 0
1.460979939 -17.00674057 0.2979474962 21 0 0 0 0
1.550554991 -17.00485039 0.2980521917 10 0 0 0 0
-4.305277824 -16.63529968 0.2999370992 16 0 0 0 0
-4.191946983 -16.66422081 0.2999370992 16 0 0 0 0
-4.347071171 -16.55828094 0.2988201082 11 0 0 0 0
-4.622233868 -16.44412041 0.2981568873 16 0 0 0 0
-4.570683002 -16.48134995 0.2985408902 16 0 0 0 0
-4.439884186 -16.4549408 0.2974936962 16 0 0 0 0
-4.381690979 -16.45605087 0.2972494066 16 0 0 0 0
-5.149858952 -16.34321022 0.2990992963 22 0 0 0 0
-4.892428875 -16.30731964 0.2971794903 21 0 0 0 0
-4.742312431 -16.33387947 0.2968829274 16 0 0 0 0
-4.661408901 -16.37484932 0.2971794903 16 0 0 0 0
-4.485684872 -16.39690971 0.2967258096 16 0 0 0 0
-5.066627979 -16.27708054 0.2975636125 21 0 0 0 0
-4.97397089 -16.27424622 0.2970399559 21 0 0 0 0
-4.824118137 -16.28594971 0.2964814901 16 0 0 0 0
-0.3780297041 -15.92308998 0.2780168056 4 0 0 0 0
-5.728991985 -15.84344006 0.2940729856 21 0 0 0 0
-5.683080196 -15.88969994 0.2945617139 15 0 0 0 0
-5.927043915 -15.70203972 0.2929561138 15 0 0 0 0
-5.753364086 -15.73882961 0.2925023139 15 0 0 0 0
-6.132934093 -15.60128975 0.2926070094 10 0 0 0 0
-5.851906776 -15.66831017 0.2919437885 15 0 0 0 0
-5.782626152 -15.64925003 0.2912108898 20 0 0 0 0
-6.032755852 -15.50520039 0.2904079854 15 0 0 0 0
-5.967358589 -15.56579971 0.2909839749 15 0 0 0 0
-6.22514534 -15.4310894 0.2904429436 15 0 0 0 0
-6.34889698 -15.35031986 0.2899543047 10 0 0 0 0
-6.112542152 -15.38358021 0.2889420986 20 0 0 0 0
-6.677005768 -15.2323103 0.2903032899 10 0 0 0 0
-6.549911499 -15.23073959 0.2893958092 13.33333302 0 0 0 0
-6.430261135 -15.24481964 0.2888023853 15 0 0 0 0
-6.386257172 -15.28931999 0.2892212868 15 0 0 0 0
-6.255868912 -15.27616978 0.2881391943 15 0 0 0 0
-6.841837406 -15.11067963 0.2895354629 12.5 0 0 0 0
-6.731453419 -15.14048004 0.289221257 7.5 0 0 0 0
-1.309108973 -15.11509991 0.2648228109 13 0 0 0 0
-1.260314941 -15.1674099 0.2656606138 8 0 0 0 0
-8.133477211 -15.08656502 0.299169153 13.5 0 0 0 0
-7.673598766 -15.03433037 0.294631511 94 0 0 0 0
-7.03776598 -15.05136967 0.2900241017 15 0 0 0 0
-6.930779934 -15.02716446 0.2888547778 12.5 0 0 0 0
-7.950053692 -14.98962975 0.2961673737 18.5 0 0 0 0
-7.829685211 -14.95137978 0.2945966125 21 0 0 0 0
-7.746274948 -14.92494965 0.2935146093 21 0 0 0 0
-7.674771786 -14.90789032 0.2926768959 15 0 0 0 0
-7.535233498 -14.94976521 0.2922230959 17.5 0 0 0 0
-7.42218399 -14.91919041 0.2908617854 10 0 0 0 0
-7.340873718 -14.95153999 0.2907396555 15 0 0 0 0
-7.248981953 -14.96856976 0.2903032899 10 0 0 0 0
-7.148996353 -14.95783997 0.289378345 15 0 0 0 0
-7.074046135 -14.99234962 0.2893609107 15 0 0 0 0
-1.564988971 -14.54784012 0.2553985119 4 0 0 0 0
-2.160206079 -14.4026804 0.2542118132 8 0 0 0 0
-1.502606988 -14.44182968 0.2534438074 4 0 0 0 0
-2.094091892 -14.31949043 0.2526060939 12 0 0 0 0
-1.649659991 -14.38953972 0.2528156042 4 0 0 0 0
-1.345240951 -14.36495018 0.2518382072 4 0 0 0 0
-2.241767883 -14.26675034 0.2520825863 12 0 0 0 0
-2.356280088 -14.03542042 0.2484174967 4 0 0 0 0
-2.253793955 -14.02388954 0.2479289025 4 0 0 0 0
-1.763466954 -14.07781982 0.2476495951 8 0 0 0 0
-1.559669971 -14.03746986 0.2465326935 3 0 0 0 0
-2.546705008 -13.98585987 0.2481382936 8 0 0 0 0
-1.645427942 -13.92296982 0.244717598 3 0 0 0 0
-2.569951057 -13.8392601 0.2456949949 3 0 0 0 0
-2.279390097 -13.87386036 0.2454157025 11 0 0 0 0
-2.12578702 -13.84360027 0.2444732934 15 0 0 0 0
-1.982117057 -13.875 0.2446478009 7 0 0 0 0
-1.863252521 -13.89043522 0.2446303517 7 0 0 0 0
-1.789602995 -13.89307976 0.2445082068 7 0 0 0 0
-2.704319 -13.75860977 0.2447526008 11 0 0 0 0
-2.647185087 -13.72084045 0.2439147979 11 0 0 0 0
-2.59778595 -13.72214031 0.2437752038 11 0 0 0 0
12.11227989 -12.18010998 0.2998323143 16 0 0 0 0
12.0938797 -12.07699966 0.2983314097 16 0 0 0 0
11.75354004 -11.90217972 0.2919788063 10 0 0 0 0
11.61392021 -11.84319019 0.2895354033 10 0 0 0 0
11.07374001 -11.53145981 0.2790639997 4 0 0 0 0
11.15563011 -11.53586006 0.2801111042 9 0 0 0 0
11.28092957 -11.58423996 0.2822403014 14 0 0 0 0
10.96166039 -11.49479008 0.2772488892 13 0 0 0 0
10.62368011 -11.21459961 0.2696397007 13 0 0 0 0
9.736041069 -11.02396011 0.256724894 16 0 0 0 0
9.843858719 -10.9519701 0.2570390701 10 0 0 0 0
9.913210869 -10.91359043 0.2573531866 16 0 0 0 0
9.664158821 -10.86588955 0.2538278103 16 0 0 0 0
9.953971863 -10.84385014 0.2569342852 8 0 0 0 0
10.03647041 -10.81945038 0.257597506 12 0 0 0 0
10.16699982 -10.8837204 0.259971112 17 0 0 0 0
10.24878025 -10.89476967 0.2610880136 12 0 0 0 0
13.8822403 -10.08603001 0.2995181978 5 0 0 0 0
8.724453926 -9.948332787 0.2309650928 3 0 0 0 0
8.559663773 -9.82943058 0.2275096029 10 0 0 0 0
8.308179855 -9.608153343 0.2217154056 10 0 0 0 0
8.121221542 -9.455135345 0.2175617069 9 0 0 0 0
13.68832016 -9.446463585 0.2903032899 5 0 0 0 0
13.72616005 -9.405540466 0.2904429138 10 0 0 0 0
13.75393009 -9.350672722 0.2903032899 10 0 0 0 0
7.90779686 -9.271939278 0.2127099037 12 0 0 0 0
13.68702984 -9.23549366 0.2882089913 10 0 0 0 0
7.51887989 -9.130867004 0.2064619958 9 0 0 0 0
13.66269016 -9.149828911 0.2870222926 10 0 0 0 0
7.589048862 -9.028264999 0.2058686018 18 0 0 0 0
7.686706066 -9.07668972 0.207613796 12 0 0 0 0
13.64290047 -9.035202026 0.2856260538 12 0 0 0 0
13.72006512 -8.954229355 0.2859751582 7.5 0 0 0 0
7.387331009 -8.847691536 0.2011913955 12 0 0 0 0
13.68947983 -8.832418442 0.2843694985 14 0 0 0 0
13.75070953 -8.770263672 0.2846836448 11.5 0 0 0 0
13.88609982 -8.754702568 0.2865335941 5 0 0 0 0
13.93352985 -8.716783524 0.2868826985 5 0 0 0 0
13.97066975 -8.672311783 0.2870222926 5 0 0 0 0
13.82707024 -7.838942528 0.2774409056 18 0 0 0 0
13.81124973 -7.734673977 0.27630651 18 0 0 0 0
13.81215477 -7.640491486 0.2755210996 18 0 0 0 0
13.81077003 -7.545517921 0.2747009099 18 0 0 0 0
13.82060146 -7.460328579 0.2741423845 18 0 0 0 0
13.81890965 -7.366219997 0.2733395994 18 0 0 0 0
13.81036568 -7.269089699 0.2724146247 18 0 0 0 0
13.81898975 -7.181456089 0.2718386948 18 0 0 0 0
13.82518005 -6.70122385 0.2681736946 18 0 0 0 0
13.82505989 -6.641666889 0.2677198946 17 0 0 0 0
13.83732033 -6.58821106 0.2675105035 17 0 0 0 0
11.76205444 -5.828525066 0.2291326523 14 0 0 0 0
11.78973961 -5.765532017 0.2290803045 14 0 0 0 0
10.7930851 -5.536190033 0.2117325962 10.5 0 0 0 0
10.82242966 -5.478660107 0.2117325962 12 0 0 0 0
4.847473145 -2.036222935 0.2755488455 14 0 0 0 0
4.816105843 -1.954545259 0.2723981738 12.80000019 0 0 0 0
4.776214123 -1.852618217 0.2684835196 14.5 0 0 0 0
4.733869076 -1.75124228 0.2645269036 14.19999981 0 0 0 0
4.696217537 -1.636348248 0.2606330514 17 0 0 0 0
4.708423138 -1.685858965 0.2620984912 15 0 0 0 0
4.666265011 -1.544382572 0.2575976253 20 0 0 0 0
4.624133587 -1.441783667 0.253850311 18.60000038 0 0 0 0
4.588618279 -1.34394145 0.2505846024 16.20000076 0 0 0 0
4.554049969 -1.247642756 0.2474653721 18 0 0 0 0
4.497122765 -1.132936954 0.243048206 18 0 0 0 0
4.523394108 -1.149234176 0.2445973605 17.39999962 0 0 0 0
4.558550358 -1.080629349 0.2455254346 7.666666508 0 0 0 0
4.65068531 -1.033819437 0.2496844232 7.199999809 0 0 0 0
4.752510548 -0.987323761 0.2543876767 8 0 0 0 0
4.848823071 -0.9456983209 0.2589060068 8 0 0 0 0
4.91070509 -0.9145786762 0.2617844939 6 0 0 0 0
4.962836742 -0.8884069324 0.264226824 6.666666508 0 0 0 0
5.054584026 -0.8503376842 0.2686230242 7.333333492 0 0 0 0
5.12428093 -0.8161697388 0.2719376683 6.5 0 0 0 0
5.179216385 -0.7878889441 0.2745544314 9 0 0 0 0
5.266134262 -0.745639801 0.2787413299 7.75 0 0 0 0
5.323945999 -0.7065834999 0.2814627886 3 0 0 0 0
5.698867798 -0.5156291723 0.2998850942 32 0 0 0 0
5.652909279 -0.4519664645 0.2972054482 69.40000153 0 0 0 0
5.662535667 -0.3631694019 0.2973729372 50 0 0 0 0
5.643054008 0.7309026718 0.2982102931 6 0 0 0 0
5.471673012 0.8441268802 0.2901506126 13 0 0 0 0
5.539714813 0.8744310737 0.2939187884 6 0 0 0 0
5.581459999 0.941028893 0.2966401875 11 0 0 0 0
5.540825844 1.12174201 0.2962738872 6.5 0 0 0 0
5.556585312 1.266533017 0.2986813784 11 0 0 0 0
5.526940823 1.310588956 0.2976869047 30 0 0 0 0
2.945524931 2.660955191 0.2080354244 2.666666746 0 0 0 0
3.047008991 2.648547649 0.211583823 4.199999809 0 0 0 0
3.149227858 2.643270493 0.2154776305 4.599999905 0 0 0 0
3.240116835 2.644390821 0.2191830128 3 0 0 0 0
3.328078508 2.640154362 0.2226371765 4.599999905 0 0 0 0
3.45041728 2.640718937 0.2277137786 5.25 0 0 0 0
3.546261311 2.636434078 0.2315866053 4.5 0 0 0 0
3.642852306 2.631269217 0.2355118245 5.5 0 0 0 0
3.74530673 2.626317739 0.2397335768 3.666666746 0 0 0 0
3.819253922 2.61898613 0.2426993251 4.666666508 0 0 0 0
3.923337221 2.620467901 0.2472612262 3.75 0 0 0 0
4.009068966 2.618462563 0.2509509325 6.5 0 0 0 0
2.932673693 2.75306654 0.2108092755 4.800000191 0 0 0 0
4.549351692 2.760623455 0.2788878977 34.59999847 0 0 0 0
4.61518383 2.734850883 0.2811487913 22 0 0 0 0
4.942296982 2.791536331 0.297477603 1 0 0 0 0
2.929662228 2.847012758 0.2140959501 4.599999905 0 0 0 0
4.556523323 2.852850676 0.2817419469 18 0 0 0 0
4.824913025 2.803627968 0.2924533486 1 0 0 0 0
4.929590225 2.830065012 0.2978962958 1 0 0 0 0
2.926899433 2.945807695 0.2176338732 4.400000095 0 0 0 0
4.557849407 2.920431852 0.2836957872 8 0 0 0 0
2.93606329 3.058563709 0.2221975774 4.800000191 0 0 0 0
2.935329914 3.156011105 0.2258820385 4.5 0 0 0 0
2.939453602 3.249789 0.2296501994 4.75 0 0 0 0
2.946778774 3.349638939 0.2338109016 5.25 0 0 0 0
2.945519924 3.443928003 0.2375005931 4.75 0 0 0 0
2.948029995 3.545011759 0.2416351289 6.5 0 0 0 0
2.952702761 3.639837027 0.2456301004 7 0 0 0 0
3.047825098 3.851087093 0.2573882341 27.75 0 0 0 0
3.033723831 3.943786383 0.2607639432 28.5 0 0 0 0
3.045763969 4.06111002 0.2660411596 29.33333397 0 0 0 0
3.036170006 4.153516293 0.2696348429 25.75 0 0 0 0
3.04537344 4.255352497 0.2742404342 27 0 0 0 0
3.044300079 4.351486683 0.2783226371 30.75 0 0 0 0
3.035486221 4.453876019 0.2824746072 22 0 0 0 0
3.029922485 4.546738148 0.2863474786 26.66666603 0 0 0 0
3.035112619 4.65653944 0.2913019359 26.33333397 0 0 0 0
3.029710054 4.755849838 0.2955237329 29 0 0 0 0
3.035434961 4.838897228 0.2993617058 29 0 0 0 0
0.8292942047 11.4712944 0.2007550597 13.5 0 0 0 0
0.7775403261 11.58417034 0.2026572973 15 0 0 0 0
0.7235540152 11.66378498 0.2039837539 22.5 0 0 0 0
0.6453152895 11.72644997 0.2049959451 7.5 0 0 0 0
0.5318161249 11.94232559 0.2086609602 18 0 0 0 0
